ncols         101
nrows         52
xllcorner     0
yllcorner     7
cellsize      1
NODATA_value  -9999.
36.60433012552509 38.17409311375792 39.737660964632695 41.288862990168205 42.82157730464646 44.32975498489877 45.80744394264204 47.2488124146519 48.64817197806797 50.00000000000001 51.29896143283691 52.53992986924232 53.71800777374231 54.82854581106037 55.867161194919824 56.82975498489876 57.71252826307546 58.51199712662169 59.22500643717557 59.848742272731364 60.38074303290393 60.81890915374087 61.16151139374231 61.40719765838703 61.55499833623188 61.60433012552509 61.55499833623188 61.40719765838703 61.16151139374231 60.81890915374087 60.38074303290393 59.84874227273138 59.22500643717557 58.51199712662167 57.71252826307546 56.82975498489878 55.867161194919824 54.82854581106037 53.71800777374231 52.539929869242336 51.29896143283691 50.000000000000014 48.64817197806797 47.24881241465191 45.807443942642045 44.32975498489878 42.82157730464647 41.288862990168205 39.7376609646327 38.17409311375793 36.60433012552509 35.03456713729226 33.47099928641748 31.91979726088197 30.387082946403723 28.878905266151406 27.401216308408138 25.959847836398282 24.560488272982205 23.208660251050176 21.909698818213272 20.668730381807848 19.490652477307883 18.380114439989804 17.341499056130353 16.378905266151406 15.496131987974708 14.696663124428499 13.983653813874595 13.359917978318803 12.827917218146252 12.38975109730931 12.047148857307873 11.801462592663144 11.653661914818302 11.60433012552509 11.653661914818302 11.801462592663144 12.047148857307873 12.389751097309313 12.827917218146249 13.3599179783188 13.983653813874591 14.696663124428506 15.496131987974715 16.3789052661514 17.341499056130353 18.38011443998979 19.49065247730787 20.668730381807848 21.90969881821325 23.208660251050162 24.560488272982184 25.95984783639826 27.401216308408145 28.8789052661514 30.3870829464037 31.91979726088197 33.470999286417474 35.03456713729226 36.60433012552508
37.95615814745712 39.52592113568995 41.089488986564724 42.640691012100234 44.17340532657849 45.6815830068308 47.15927196457407 48.60064043658393 50.0 51.351828021932036 52.65078945476894 53.89175789117435 55.06983579567434 56.1803738329924 57.21898921685185 58.18158300683079 59.06435628500749 59.863825148553715 60.5768344591076 61.20057029466339 61.73257105483596 62.1707371756729 62.51333941567434 62.759025680319056 62.90682635816391 62.95615814745712 62.90682635816391 62.759025680319056 62.51333941567434 62.1707371756729 61.73257105483596 61.20057029466341 60.5768344591076 59.8638251485537 59.06435628500749 58.181583006830806 57.21898921685185 56.1803738329924 55.06983579567434 53.891757891174365 52.65078945476894 51.35182802193204 50.0 48.60064043658394 47.159271964574074 45.681583006830806 44.1734053265785 42.640691012100234 41.08948898656473 39.525921135689956 37.95615814745712 36.386395159224286 34.82282730834951 33.271625282814 31.73891096833575 30.230733288083435 28.753044330340167 27.31167585833031 25.912316294914234 24.560488272982205 23.2615268401453 22.020558403739876 20.84248049923991 19.731942461921825 18.69332707806238 17.730733288083435 16.847960009906735 16.048491146360526 15.33548183580662 14.711746000250828 14.179745240078278 13.741579119241335 13.398976879239898 13.15329061459517 13.005489936750328 12.956158147457115 13.005489936750328 13.15329061459517 13.398976879239898 13.741579119241338 14.179745240078274 14.711746000250825 15.335481835806617 16.048491146360533 16.847960009906743 17.730733288083428 18.693327078062374 19.73194246192181 20.842480499239898 22.020558403739876 23.26152684014528 24.56048827298219 25.912316294914213 27.31167585833029 28.753044330340174 30.230733288083428 31.73891096833573 33.271625282814 34.8228273083495 36.386395159224286 37.95615814745711
39.355517710873194 40.925280699106025 42.4888485499808 44.04005057551631 45.572764889994566 47.080942570246876 48.558631527990144 50.00000000000001 51.39935956341608 52.75118758534811 54.05014901818502 55.29111745459043 56.46919535909041 57.57973339640848 58.61834878026793 59.58094257024687 60.46371584842357 61.26318471196979 61.97619402252368 62.59992985807947 63.131930618252035 63.570096739088974 63.912698979090415 64.15838524373513 64.30618592157998 64.35551771087319 64.30618592157998 64.15838524373513 63.912698979090415 63.570096739088974 63.131930618252035 62.599929858079484 61.97619402252368 61.26318471196978 60.46371584842357 59.58094257024688 58.61834878026793 57.57973339640848 56.46919535909041 55.29111745459044 54.05014901818502 52.75118758534812 51.39935956341608 50.000000000000014 48.55863152799015 47.08094257024688 45.57276488999457 44.04005057551631 42.48884854998081 40.92528069910603 39.355517710873194 37.78575472264036 36.22218687176559 34.67098484623008 33.13827053175183 31.630092851499512 30.152403893756244 28.711035421746388 27.31167585833031 25.959847836398282 24.660886403561378 23.419917967155953 22.24184006265599 21.131302025337906 20.09268664147846 19.130092851499512 18.247319573322812 17.447850709776603 16.7348413992227 16.111105563666907 15.579104803494356 15.140938682657413 14.798336442655977 14.552650178011248 14.404849500166407 14.355517710873194 14.404849500166407 14.552650178011248 14.798336442655977 15.140938682657417 15.579104803494353 16.111105563666904 16.734841399222695 17.44785070977661 18.24731957332282 19.130092851499505 20.092686641478455 21.13130202533789 22.241840062655974 23.419917967155953 24.660886403561356 25.959847836398268 27.31167585833029 28.711035421746367 30.15240389375625 31.630092851499505 33.13827053175181 34.67098484623008 36.22218687176558 37.78575472264036 39.35551771087319
40.79688618288305 42.36664917111588 43.93021702199066 45.48141904752617 47.01413336200442 48.52231104225673 50.0 51.44136847200986 52.84072803542593 54.19255605735797 55.49151749019487 56.73248592660028 57.91056383110027 59.021101868418334 60.059717252277785 61.022311042256725 61.905084320433424 62.70455318397965 63.417562494533534 64.04129833008933 64.5732990902619 65.01146521109884 65.35406745110028 65.599753715745 65.74755439358985 65.79688618288306 65.74755439358985 65.599753715745 65.35406745110028 65.01146521109884 64.5732990902619 64.04129833008935 63.417562494533534 62.704553183979634 61.905084320433424 61.02231104225674 60.059717252277785 59.021101868418334 57.91056383110027 56.7324859266003 55.49151749019487 54.192556057357976 52.84072803542593 51.44136847200987 50.00000000000001 48.52231104225674 47.01413336200443 45.48141904752617 43.930217021990664 42.36664917111589 40.79688618288305 39.22712319465022 37.66355534377544 36.11235331823993 34.579639003761685 33.07146132350937 31.5937723657661 30.152403893756244 28.753044330340167 27.401216308408138 26.102254875571234 24.86128643916581 23.683208534665845 22.572670497347765 21.534055113488314 20.571461323509368 19.68868804533267 18.88921918178646 18.176209871232558 17.552474035676767 17.020473275504216 16.58230715466727 16.239704914665836 15.994018650021106 15.846217972176264 15.796886182883052 15.846217972176264 15.994018650021106 16.239704914665836 16.582307154667276 17.02047327550421 17.55247403567676 18.17620987123255 18.889219181786466 19.688688045332675 20.57146132350936 21.534055113488314 22.57267049734775 23.68320853466583 24.86128643916581 26.102254875571212 27.401216308408124 28.753044330340146 30.152403893756222 31.593772365766107 33.07146132350936 34.57963900376166 36.11235331823993 37.663555343775435 39.22712319465022 40.79688618288304
42.27457514062632 43.84433812885915 45.407905979733926 46.959108005269435 48.49182231974769 50.0 51.47768895774327 52.91905742975313 54.3184169931692 55.67024501510124 56.96920644793814 58.21017488434355 59.38825278884354 60.4987908261616 61.537406210021054 62.49999999999999 63.38277327817669 64.18224214172292 64.8952514522768 65.5189872878326 66.05098804800517 66.4891541688421 66.83175640884355 67.07744267348826 67.22524335133312 67.27457514062633 67.22524335133312 67.07744267348826 66.83175640884355 66.4891541688421 66.05098804800517 65.5189872878326 64.8952514522768 64.1822421417229 63.38277327817669 62.50000000000001 61.537406210021054 60.4987908261616 59.38825278884354 58.210174884343566 56.96920644793814 55.670245015101244 54.3184169931692 52.91905742975314 51.477688957743275 50.00000000000001 48.4918223197477 46.959108005269435 45.40790597973393 43.84433812885916 42.27457514062632 40.70481215239349 39.14124430151871 37.5900422759832 36.05732796150495 34.549150281252636 33.07146132350937 31.630092851499512 30.230733288083435 28.878905266151406 27.579943833314502 26.338975396909078 25.160897492409113 24.05035945509103 23.011744071231583 22.049150281252636 21.166377003075937 20.366908139529727 19.653898828975823 19.03016299342003 18.49816223324748 18.059996112410538 17.7173938724091 17.471707607764372 17.32390692991953 17.274575140626318 17.32390692991953 17.471707607764372 17.7173938724091 18.05999611241054 18.498162233247477 19.030162993420028 19.65389882897582 20.366908139529734 21.166377003075944 22.04915028125263 23.01174407123158 24.050359455091016 25.1608974924091 26.338975396909078 27.57994383331448 28.878905266151392 30.230733288083414 31.63009285149949 33.071461323509375 34.54915028125263 36.05732796150493 37.5900422759832 39.141244301518704 40.70481215239349 42.27457514062631
43.782752820878635 45.352515809111466 46.91608365998624 48.46728568552175 50.00000000000001 51.50817768025232 52.985866637995585 54.42723511000545 55.82659467342152 57.178422695353554 58.47738412819046 59.71835256459587 60.896430469095854 62.00696850641392 63.04558389027337 64.00817768025232 64.89095095842902 65.69041982197524 66.40342913252913 67.02716496808492 67.55916572825748 67.99733184909442 68.33993408909586 68.58562035374058 68.73342103158544 68.78275282087864 68.73342103158544 68.58562035374058 68.33993408909586 67.99733184909442 67.55916572825748 67.02716496808493 66.40342913252913 65.69041982197523 64.89095095842902 64.00817768025233 63.04558389027337 62.00696850641392 60.896430469095854 59.71835256459588 58.47738412819046 57.17842269535356 55.82659467342152 54.427235110005455 52.98586663799559 51.508177680252324 50.000000000000014 48.46728568552175 46.91608365998625 45.35251580911147 43.782752820878635 42.2129898326458 40.64942198177103 39.09821995623552 37.56550564175727 36.05732796150495 34.579639003761685 33.13827053175183 31.73891096833575 30.387082946403723 29.08812151356682 27.847153077161394 26.66907517266143 25.558537135343347 24.5199217514839 23.557327961504953 22.674554683328253 21.875085819782043 21.16207650922814 20.538340673672348 20.006339913499797 19.568173792662854 19.225571552661417 18.97988528801669 18.832084610171847 18.782752820878635 18.832084610171847 18.97988528801669 19.225571552661417 19.568173792662858 20.006339913499794 20.538340673672344 21.162076509228136 21.87508581978205 22.67455468332826 23.557327961504946 24.519921751483896 25.558537135343332 26.669075172661415 27.847153077161394 29.088121513566797 30.38708294640371 31.73891096833573 33.13827053175181 34.57963900376169 36.057327961504946 37.56550564175725 39.09821995623552 40.64942198177102 42.2129898326458 43.78275282087863
45.31546713535688 46.885230123589714 48.44879797446449 50.0 51.532714314478255 53.040891994730565 54.51858095247383 55.959949424483696 57.359308987899766 58.7111370098318 60.010098442668706 61.251066879074116 62.4291447835741 63.53968282089217 64.57829820475162 65.54089199473056 66.42366527290726 67.22313413645348 67.93614344700737 68.55987928256316 69.09188004273572 69.53004616357266 69.8726484035741 70.11833466821882 70.26613534606368 70.31546713535688 70.26613534606368 70.11833466821882 69.8726484035741 69.53004616357266 69.09188004273572 68.55987928256317 67.93614344700737 67.22313413645347 66.42366527290726 65.54089199473057 64.57829820475162 63.53968282089217 62.4291447835741 61.25106687907413 60.010098442668706 58.71113700983181 57.359308987899766 55.9599494244837 54.51858095247384 53.04089199473057 51.53271431447826 50.0 48.4487979744645 46.88523012358972 45.31546713535688 43.74570414712405 42.182136296249276 40.630934270713766 39.09821995623552 37.5900422759832 36.11235331823993 34.67098484623008 33.271625282814 31.91979726088197 30.620835828045067 29.379867391639642 28.201789487139678 27.09125144982159 26.052636065962147 25.0900422759832 24.2072689978065 23.40780013426029 22.694790823706384 22.071054988150593 21.539054227978042 21.100888107141103 20.758285867139662 20.512599602494937 20.364798924650096 20.315467135356883 20.364798924650096 20.512599602494937 20.758285867139662 21.100888107141103 21.539054227978042 22.071054988150593 22.694790823706384 23.4078001342603 24.20726899780651 25.090042275983194 26.05263606596214 27.091251449821577 28.201789487139663 29.379867391639642 30.620835828045045 31.919797260881957 33.27162528281398 34.670984846230056 36.11235331823994 37.590042275983194 39.098219956235496 40.630934270713766 42.18213629624927 43.74570414712405 45.315467135356876
46.86666916089239 48.436432149125224 50.0 51.55120202553551 53.083916340013765 54.592094020266074 56.06978297800934 57.511151450019206 58.910511013435276 60.26233903536731 61.561300468204216 62.802268904609626 63.98034680910961 65.09088484642768 66.12950023028714 67.09209402026607 67.97486729844277 68.774336161989 69.48734547254287 70.11108130809868 70.64308206827124 71.08124818910818 71.42385042910962 71.66953669375434 71.8173373715992 71.8666691608924 71.8173373715992 71.66953669375434 71.42385042910962 71.08124818910818 70.64308206827124 70.11108130809868 69.48734547254287 68.77433616198897 67.97486729844277 67.09209402026607 66.12950023028714 65.09088484642768 63.98034680910961 62.80226890460964 61.561300468204216 60.26233903536732 58.910511013435276 57.51115145001921 56.06978297800935 54.59209402026608 53.08391634001377 51.55120202553551 50.00000000000001 48.43643214912523 46.86666916089239 45.29690617265956 43.733338321784785 42.182136296249276 40.64942198177103 39.14124430151871 37.66355534377544 36.22218687176559 34.82282730834951 33.47099928641748 32.172037853580576 30.931069417175152 29.752991512675187 28.642453475357105 27.603838091497657 26.64124430151871 25.75847102334201 24.9590021597958 24.245992849241897 23.622257013686106 23.090256253513555 22.652090132676612 22.309487892675175 22.063801628030447 21.916000950185605 21.866669160892393 21.916000950185605 22.063801628030447 22.309487892675175 22.652090132676616 23.09025625351355 23.622257013686102 24.245992849241894 24.95900215979581 25.758471023342018 26.641244301518704 27.603838091497654 28.64245347535709 29.752991512675173 30.931069417175152 32.172037853580555 33.47099928641747 34.82282730834949 36.222186871765565 37.66355534377545 39.141244301518704 40.649421981771006 42.182136296249276 43.73333832178478 45.29690617265956 46.866669160892386
48.43023701176717 50.0 51.563567850874776 53.114769876410286 54.64748419088854 56.15566187114085 57.63335082888412 59.07471930089398 60.47407886431005 61.82590688624209 63.12486831907899 64.3658367554844 65.54391465998438 66.65445269730245 67.6930680811619 68.65566187114084 69.53843514931754 70.33790401286376 71.05091332341765 71.67464915897344 72.206649919146 72.64481603998294 72.98741827998438 73.2331045446291 73.38090522247396 73.43023701176716 73.38090522247396 73.2331045446291 72.98741827998438 72.64481603998294 72.206649919146 71.67464915897345 71.05091332341765 70.33790401286375 69.53843514931754 68.65566187114085 67.6930680811619 66.65445269730245 65.54391465998438 64.36583675548441 63.12486831907899 61.825906886242095 60.47407886431005 59.07471930089399 57.633350828884126 56.15566187114086 54.64748419088855 53.114769876410286 51.56356785087478 50.00000000000001 48.43023701176717 46.86047402353434 45.29690617265956 43.74570414712405 42.2129898326458 40.70481215239349 39.22712319465022 37.78575472264036 36.386395159224286 35.03456713729226 33.73560570445535 32.49463726804993 31.31655936354996 30.206021326231877 29.16740594237243 28.204812152393483 27.322038874216783 26.522570010670574 25.80956070011667 25.185824864560878 24.653824104388327 24.215657983551385 23.873055743549948 23.62736947890522 23.479568801060378 23.430237011767165 23.479568801060378 23.62736947890522 23.873055743549948 24.215657983551388 24.653824104388324 25.185824864560875 25.809560700116666 26.52257001067058 27.32203887421679 28.204812152393476 29.167405942372426 30.206021326231863 31.316559363549946 32.49463726804993 33.73560570445533 35.03456713729224 36.386395159224264 37.78575472264034 39.227123194650225 40.70481215239348 42.21298983264578 43.74570414712405 45.296906172659554 46.86047402353434 48.43023701176716
50.0 51.56976298823283 53.13333083910761 54.68453286464312 56.21724717912137 57.72542485937368 59.20311381711695 60.64448228912681 62.04384185254288 63.39566987447492 64.69463130731182 65.93559974371723 67.11367764821722 68.22421568553528 69.26283106939474 70.22542485937367 71.10819813755037 71.9076670010966 72.62067631165048 73.24441214720628 73.77641290737884 74.21457902821578 74.55718126821722 74.80286753286194 74.9506682107068 75.0 74.9506682107068 74.80286753286194 74.55718126821722 74.21457902821578 73.77641290737884 73.24441214720629 72.62067631165048 71.90766700109658 71.10819813755037 70.22542485937369 69.26283106939474 68.22421568553528 67.11367764821722 65.93559974371725 64.69463130731182 63.395669874474926 62.04384185254288 60.64448228912682 59.20311381711696 57.72542485937369 56.21724717912138 54.68453286464312 53.133330839107614 51.56976298823284 50.0 48.43023701176717 46.86666916089239 45.31546713535688 43.782752820878635 42.27457514062632 40.79688618288305 39.355517710873194 37.95615814745712 36.60433012552509 35.305368692688184 34.06440025628276 32.886322351782795 31.775784314464715 30.737168930605268 29.77457514062632 28.891801862449622 28.092332998903412 27.37932368834951 26.755587852793717 26.223587092621166 25.785420971784223 25.442818731782786 25.197132467138058 25.049331789293216 25.000000000000004 25.049331789293216 25.197132467138058 25.442818731782786 25.785420971784227 26.223587092621162 26.755587852793713 27.379323688349505 28.09233299890342 28.89180186244963 29.774575140626315 30.737168930605264 31.7757843144647 32.88632235178278 34.06440025628276 35.30536869268816 36.604330125525074 37.956158147457096 39.35551771087317 40.79688618288306 42.27457514062631 43.78275282087861 45.31546713535688 46.866669160892386 48.43023701176717 49.99999999999999
51.56976298823284 53.13952597646567 54.703093827340446 56.254295852875956 57.78701016735421 59.29518784760652 60.77287680534979 62.21424527735965 63.61360484077572 64.96543286270776 66.26439429554466 67.50536273195007 68.68344063645006 69.79397867376812 70.83259405762757 71.79518784760651 72.67796112578321 73.47742998932944 74.19043929988332 74.81417513543911 75.34617589561168 75.78434201644862 76.12694425645006 76.37263052109478 76.52043119893963 76.56976298823284 76.52043119893963 76.37263052109478 76.12694425645006 75.78434201644862 75.34617589561168 74.81417513543913 74.19043929988332 73.47742998932942 72.67796112578321 71.79518784760653 70.83259405762757 69.79397867376812 68.68344063645006 67.50536273195009 66.26439429554466 64.96543286270777 63.61360484077572 62.21424527735966 60.772876805349796 59.29518784760653 57.78701016735422 56.254295852875956 54.70309382734045 53.13952597646568 51.56976298823284 50.00000000000001 48.43643214912523 46.88523012358972 45.35251580911147 43.84433812885916 42.36664917111589 40.92528069910603 39.525921135689956 38.17409311375793 36.87513168092102 35.6341632445156 34.45608534001563 33.345547302697554 32.3069319188381 31.344338128859157 30.461564850682457 29.662095987136247 28.949086676582343 28.32535084102655 27.793350080854 27.355183960017058 27.01258172001562 26.766895455370893 26.61909477752605 26.56976298823284 26.61909477752605 26.766895455370893 27.01258172001562 27.35518396001706 27.793350080853997 28.325350841026548 28.94908667658234 29.662095987136254 30.461564850682464 31.34433812885915 32.3069319188381 33.34554730269754 34.45608534001562 35.6341632445156 36.875131680921 38.17409311375791 39.525921135689934 40.92528069910601 42.366649171115895 43.84433812885915 45.35251580911145 46.88523012358972 48.436432149125224 50.00000000000001 51.56976298823283
53.133330839107614 54.703093827340446 56.26666167821522 57.81786370375073 59.35057801822899 60.858755698481296 62.336444656224565 63.77781312823443 65.1771726916505 66.52900071358253 67.82796214641944 69.06893058282485 70.24700848732483 71.3575465246429 72.39616190850235 73.35875569848129 74.24152897665799 75.04099784020421 75.7540071507581 76.37774298631389 76.90974374648646 77.3479098673234 77.69051210732484 77.93619837196955 78.08399904981441 78.13333083910761 78.08399904981441 77.93619837196955 77.69051210732484 77.3479098673234 76.90974374648646 76.3777429863139 75.7540071507581 75.0409978402042 74.24152897665799 73.3587556984813 72.39616190850235 71.3575465246429 70.24700848732483 69.06893058282486 67.82796214641944 66.52900071358253 65.1771726916505 63.777813128234435 62.33644465622457 60.8587556984813 59.350578018228994 57.81786370375073 56.26666167821523 54.70309382734045 53.133330839107614 51.56356785087478 50.00000000000001 48.4487979744645 46.91608365998625 45.40790597973393 43.930217021990664 42.48884854998081 41.08948898656473 39.7376609646327 38.4386995317958 37.197731095390374 36.01965319089041 34.90911515357232 33.87049976971288 32.90790597973393 32.02513270155723 31.225663838011023 30.51265452745712 29.888918691901328 29.356917931728777 28.918751810891834 28.576149570890397 28.33046330624567 28.182662628400827 28.133330839107614 28.182662628400827 28.33046330624567 28.576149570890397 28.918751810891838 29.356917931728773 29.888918691901324 30.512654527457116 31.22566383801103 32.02513270155724 32.907905979733926 33.87049976971287 34.90911515357231 36.019653190890395 37.197731095390374 38.43869953179578 39.73766096463269 41.08948898656471 42.48884854998079 43.93021702199067 45.407905979733926 46.91608365998623 48.4487979744645 50.0 51.56356785087478 53.13333083910761
54.68453286464312 56.25429585287595 57.817863703750724 59.369065729286234 60.90178004376449 62.4099577240168 63.88764668176007 65.32901515376993 66.728374717186 68.08020273911804 69.37916417195494 70.62013260836035 71.79821051286034 72.9087485501784 73.94736393403785 74.90995772401679 75.79273100219349 76.59219986573972 77.3052091762936 77.9289450118494 78.46094577202196 78.8991118928589 79.24171413286034 79.48740039750506 79.63520107534991 79.68453286464312 79.63520107534991 79.48740039750506 79.24171413286034 78.8991118928589 78.46094577202196 77.92894501184941 77.3052091762936 76.5921998657397 75.79273100219349 74.9099577240168 73.94736393403785 72.9087485501784 71.79821051286034 70.62013260836036 69.37916417195494 68.08020273911804 66.728374717186 65.32901515376993 63.887646681760074 62.409957724016806 60.9017800437645 59.369065729286234 57.81786370375073 56.254295852875956 54.68453286464312 53.114769876410286 51.55120202553551 50.0 48.46728568552175 46.959108005269435 45.48141904752617 44.04005057551631 42.640691012100234 41.288862990168205 39.9899015573313 38.74893312092588 37.57085521642591 36.460317179107825 35.42170179524838 34.459108005269435 33.576334727092735 32.776865863546526 32.06385655299262 31.440120717436827 30.908119957264276 30.469953836427333 30.127351596425896 29.881665331781168 29.733864653936326 29.684532864643113 29.733864653936326 29.881665331781168 30.127351596425896 30.469953836427337 30.908119957264272 31.440120717436823 32.06385655299262 32.77686586354653 33.57633472709274 34.45910800526943 35.421701795248374 36.46031717910781 37.5708552164259 38.74893312092588 39.98990155733128 41.28886299016819 42.64069101210021 44.04005057551629 45.481419047526174 46.95910800526943 48.46728568552173 50.0 51.5512020255355 53.114769876410286 54.68453286464311
56.21724717912138 57.78701016735421 59.35057801822899 60.9017800437645 62.43449435824275 63.94267203849506 65.42036099623833 66.8617294682482 68.26108903166427 69.6129170535963 70.91187848643321 72.15284692283862 73.3309248273386 74.44146286465667 75.48007824851612 76.44267203849506 77.32544531667176 78.12491418021798 78.83792349077187 79.46165932632766 79.99366008650023 80.43182620733717 80.77442844733861 81.02011471198333 81.16791538982818 81.21724717912139 81.16791538982818 81.02011471198333 80.77442844733861 80.43182620733717 79.99366008650023 79.46165932632768 78.83792349077187 78.12491418021797 77.32544531667176 76.44267203849508 75.48007824851612 74.44146286465667 73.3309248273386 72.15284692283863 70.91187848643321 69.6129170535963 68.26108903166427 66.8617294682482 65.42036099623834 63.94267203849507 62.43449435824276 60.9017800437645 59.350578018228994 57.78701016735422 56.21724717912138 54.64748419088855 53.08391634001377 51.53271431447826 50.000000000000014 48.4918223197477 47.01413336200443 45.57276488999457 44.1734053265785 42.82157730464647 41.52261587180956 40.28164743540414 39.103569530904174 37.993031493586095 36.954416109726644 35.9918223197477 35.109049041571 34.30958017802479 33.59657086747089 32.972835031915096 32.440834271742546 32.0026681509056 31.660065910904166 31.414379646259434 31.266578968414592 31.21724717912138 31.266578968414592 31.414379646259434 31.660065910904166 32.002668150905606 32.44083427174254 32.97283503191509 33.59657086747088 34.309580178024795 35.109049041571005 35.99182231974769 36.954416109726644 37.99303149358608 39.10356953090416 40.28164743540414 41.52261587180954 42.82157730464645 44.173405326578475 45.57276488999455 47.014133362004436 48.49182231974769 49.99999999999999 51.53271431447826 53.083916340013765 54.64748419088855 56.21724717912137
57.72542485937369 59.29518784760652 60.858755698481296 62.409957724016806 63.94267203849506 65.45084971874736 66.92853867649063 68.3699071485005 69.76926671191657 71.12109473384861 72.42005616668551 73.66102460309092 74.83910250759091 75.94964054490897 76.98825592876842 77.95084971874736 78.83362299692406 79.63309186047029 80.34610117102417 80.96983700657997 81.50183776675253 81.94000388758947 82.28260612759091 82.52829239223563 82.67609307008048 82.72542485937369 82.67609307008048 82.52829239223563 82.28260612759091 81.94000388758947 81.50183776675253 80.96983700657998 80.34610117102417 79.63309186047027 78.83362299692406 77.95084971874738 76.98825592876842 75.94964054490897 74.83910250759091 73.66102460309094 72.42005616668551 71.12109473384861 69.76926671191657 68.3699071485005 66.92853867649065 65.45084971874738 63.94267203849507 62.409957724016806 60.8587556984813 59.29518784760653 57.72542485937369 56.15566187114086 54.59209402026608 53.04089199473057 51.508177680252324 50.00000000000001 48.52231104225674 47.08094257024688 45.681583006830806 44.32975498489878 43.03079355206187 41.78982511565645 40.611747211156484 39.5012091738384 38.46259378997895 37.50000000000001 36.61722672182331 35.8177578582771 35.10474854772319 34.4810127121674 33.94901195199485 33.51084583115791 33.16824359115647 32.92255732651174 32.7747566486669 32.72542485937369 32.7747566486669 32.92255732651174 33.16824359115647 33.51084583115791 33.94901195199485 34.4810127121674 35.10474854772319 35.817757858277105 36.617226721823315 37.5 38.462593789978946 39.50120917383838 40.61174721115647 41.78982511565645 43.03079355206185 44.32975498489876 45.681583006830785 47.08094257024686 48.522311042256746 50.0 51.5081776802523 53.04089199473057 54.592094020266074 56.15566187114086 57.72542485937368
59.20311381711696 60.77287680534978 62.33644465622456 63.887646681760074 65.42036099623833 66.92853867649063 68.4062276342339 69.84759610624377 71.24695566965984 72.59878369159188 73.89774512442878 75.13871356083419 76.31679146533418 77.42732950265224 78.46594488651169 79.42853867649063 80.31131195466733 81.11078081821356 81.82379012876744 82.44752596432323 82.9795267244958 83.41769284533274 83.76029508533418 84.0059813499789 84.15378202782375 84.20311381711696 84.15378202782375 84.0059813499789 83.76029508533418 83.41769284533274 82.9795267244958 82.44752596432325 81.82379012876744 81.11078081821354 80.31131195466733 79.42853867649065 78.46594488651169 77.42732950265224 76.31679146533418 75.1387135608342 73.89774512442878 72.59878369159188 71.24695566965984 69.84759610624377 68.40622763423391 66.92853867649065 65.42036099623833 63.887646681760074 62.33644465622457 60.772876805349796 59.20311381711696 57.63335082888412 56.06978297800934 54.51858095247384 52.985866637995585 51.47768895774327 50.0 48.558631527990144 47.159271964574074 45.80744394264204 44.508482509805134 43.26751407339971 42.08943616889975 40.978898131581666 39.94028274772222 38.97768895774327 38.09491567956657 37.29544681602036 36.58243750546646 35.95870166991067 35.426700909738116 34.98853478890118 34.64593254889974 34.400246284255005 34.25244560641016 34.20311381711696 34.25244560641016 34.400246284255005 34.64593254889974 34.98853478890118 35.426700909738116 35.95870166991067 36.58243750546646 37.29544681602037 38.09491567956658 38.97768895774327 39.940282747722215 40.97889813158165 42.08943616889974 43.26751407339971 44.50848250980512 45.807443942642024 47.159271964574046 48.55863152799013 50.000000000000014 51.47768895774327 52.98586663799557 54.51858095247384 56.06978297800934 57.63335082888412 59.20311381711694
60.64448228912682 62.21424527735965 63.77781312823443 65.32901515376994 66.8617294682482 68.3699071485005 69.84759610624377 71.28896457825364 72.68832414166971 74.04015216360175 75.33911359643865 76.58008203284406 77.75815993734405 78.86869797466211 79.90731335852156 80.8699071485005 81.7526804266772 82.55214929022343 83.26515860077731 83.8888944363331 84.42089519650567 84.85906131734261 85.20166355734405 85.44734982198877 85.59515049983362 85.64448228912683 85.59515049983362 85.44734982198877 85.20166355734405 84.85906131734261 84.42089519650567 83.88889443633312 83.26515860077731 82.55214929022341 81.7526804266772 80.86990714850052 79.90731335852156 78.86869797466211 77.75815993734405 76.58008203284408 75.33911359643865 74.04015216360175 72.68832414166971 71.28896457825364 69.84759610624378 68.36990714850052 66.8617294682482 65.32901515376994 63.777813128234435 62.21424527735966 60.64448228912682 59.07471930089399 57.51115145001921 55.9599494244837 54.427235110005455 52.91905742975314 51.44136847200987 50.000000000000014 48.60064043658394 47.24881241465191 45.949850981815004 44.70888254540958 43.530804640909615 42.420266603591536 41.381651219732085 40.41905742975314 39.53628415157644 38.73681528803023 38.02380597747633 37.40007014192054 36.868069381747986 36.42990326091104 36.08730102090961 35.841614756264875 35.69381407842003 35.64448228912682 35.69381407842003 35.841614756264875 36.08730102090961 36.42990326091105 36.86806938174798 37.40007014192053 38.02380597747632 38.736815288030236 39.536284151576446 40.41905742975313 41.381651219732085 42.42026660359152 43.5308046409096 44.70888254540958 45.94985098181498 47.248812414651894 48.600640436583916 49.99999999999999 51.44136847200988 52.91905742975313 54.427235110005434 55.9599494244837 57.511151450019206 59.07471930089399 60.64448228912681
62.04384185254288 63.61360484077571 65.17717269165048 66.728374717186 68.26108903166426 69.76926671191656 71.24695566965983 72.6883241416697 74.08768370508577 75.4395117270178 76.7384731598547 77.97944159626012 79.1575195007601 80.26805753807817 81.30667292193762 82.26926671191656 83.15203999009326 83.95150885363948 84.66451816419337 85.28825399974916 85.82025475992172 86.25842088075866 86.6010231207601 86.84670938540482 86.99451006324968 87.04384185254288 86.99451006324968 86.84670938540482 86.6010231207601 86.25842088075866 85.82025475992172 85.28825399974917 84.66451816419337 83.95150885363947 83.15203999009326 82.26926671191657 81.30667292193762 80.26805753807817 79.1575195007601 77.97944159626013 76.7384731598547 75.4395117270178 74.08768370508577 72.6883241416697 71.24695566965984 69.76926671191657 68.26108903166426 66.728374717186 65.1771726916505 63.61360484077572 62.04384185254288 60.474078864310044 58.91051101343527 57.359308987899766 55.82659467342151 54.318416993169194 52.840728035425926 51.39935956341607 50.0 48.648171978067964 47.34921054523106 46.108242108825635 44.93016420432568 43.81962616700759 42.78101078314815 41.818416993169194 40.935643714992494 40.136174851446285 39.423165540892384 38.79942970533659 38.26742894516404 37.8292628243271 37.48666058432566 37.24097431968093 37.09317364183609 37.04384185254288 37.09317364183609 37.24097431968093 37.48666058432566 37.8292628243271 38.26742894516404 38.79942970533659 39.423165540892384 40.1361748514463 40.93564371499251 41.818416993169194 42.78101078314814 43.81962616700758 44.93016420432566 46.108242108825635 47.349210545231045 48.64817197806795 49.99999999999997 51.399359563416056 52.84072803542594 54.318416993169194 55.826594673421496 57.359308987899766 58.91051101343527 60.474078864310044 62.04384185254287
63.395669874474926 64.96543286270776 66.52900071358253 68.08020273911804 69.61291705359629 71.12109473384861 72.59878369159188 74.04015216360173 75.4395117270178 76.79133974894984 78.09030118178674 79.33126961819215 80.50934752269214 81.6198855600102 82.65850094386965 83.6210947338486 84.5038680120253 85.30333687557152 86.0163461861254 86.6400820216812 87.17208278185376 87.6102489026907 87.95285114269214 88.19853740733686 88.34633808518171 88.39566987447492 88.34633808518171 88.19853740733686 87.95285114269214 87.6102489026907 87.17208278185376 86.64008202168121 86.0163461861254 85.3033368755715 84.5038680120253 83.62109473384861 82.65850094386965 81.6198855600102 80.50934752269214 79.33126961819217 78.09030118178674 76.79133974894985 75.4395117270178 74.04015216360175 72.59878369159188 71.12109473384861 69.6129170535963 68.08020273911804 66.52900071358253 64.96543286270776 63.395669874474926 61.825906886242095 60.26233903536732 58.71113700983181 57.17842269535356 55.670245015101244 54.192556057357976 52.75118758534812 51.35182802193204 50.000000000000014 48.70103856716311 47.460070130757686 46.28199222625772 45.171454188939634 44.13283880508019 43.170245015101244 42.287471736924545 41.488002873378335 40.77499356282443 40.151257727268636 39.619256967096085 39.181090846259146 38.838488606257705 38.59280234161298 38.44500166376814 38.395669874474926 38.44500166376814 38.59280234161298 38.838488606257705 39.181090846259146 39.619256967096085 40.151257727268636 40.77499356282443 41.48800287337834 42.28747173692455 43.17024501510124 44.13283880508018 45.17145418893962 46.28199222625771 47.460070130757686 48.70103856716309 50.0 51.35182802193202 52.7511875853481 54.19255605735798 55.67024501510124 57.17842269535354 58.71113700983181 60.26233903536731 61.825906886242095 63.39566987447492
64.69463130731182 66.26439429554466 67.82796214641944 69.37916417195495 70.91187848643321 72.42005616668551 73.89774512442878 75.33911359643864 76.73847315985472 78.09030118178674 79.38926261462365 80.63023105102906 81.80830895552904 82.91884699284711 83.95746237670656 84.9200561666855 85.8028294448622 86.60229830840842 87.31530761896232 87.9390434545181 88.47104421469066 88.9092103355276 89.25181257552904 89.49749884017376 89.64529951801862 89.69463130731182 89.64529951801862 89.49749884017376 89.25181257552904 88.9092103355276 88.47104421469066 87.93904345451813 87.31530761896232 86.60229830840842 85.8028294448622 84.92005616668553 83.95746237670656 82.91884699284711 81.80830895552904 80.63023105102909 79.38926261462365 78.09030118178676 76.73847315985472 75.33911359643865 73.89774512442878 72.42005616668553 70.91187848643321 69.37916417195495 67.82796214641945 66.26439429554466 64.69463130731182 63.124868319079 61.56130046820422 60.01009844266871 58.477384128190465 56.96920644793815 55.49151749019488 54.050149018185024 52.65078945476895 51.29896143283692 50.000000000000014 48.75903156359459 47.580953659094625 46.47041562177654 45.431800237917095 44.46920644793815 43.58643316976145 42.78696430621524 42.07395499566134 41.45021916010555 40.918218399933 40.48005227909605 40.13745003909462 39.891763774449885 39.74396309660504 39.69463130731183 39.74396309660504 39.891763774449885 40.13745003909462 40.48005227909606 40.91821839993299 41.45021916010554 42.07395499566133 42.786964306215246 43.586433169761456 44.46920644793814 45.43180023791709 46.470415621776525 47.58095365909461 48.75903156359459 49.99999999999999 51.298961432836904 52.650789454768926 54.050149018185 55.49151749019489 56.96920644793814 58.477384128190444 60.01009844266871 61.561300468204216 63.124868319079 64.69463130731182
65.93559974371725 67.50536273195007 69.06893058282485 70.62013260836036 72.15284692283862 73.66102460309092 75.13871356083419 76.58008203284406 77.97944159626013 79.33126961819217 80.63023105102907 81.87119948743448 83.04927739193447 84.15981542925253 85.19843081311198 86.16102460309092 87.04379788126762 87.84326674481385 88.55627605536773 89.18001189092352 89.71201265109609 90.15017877193303 90.49278101193447 90.73846727657919 90.88626795442404 90.93559974371725 90.88626795442404 90.73846727657919 90.49278101193447 90.15017877193303 89.71201265109609 89.18001189092354 88.55627605536773 87.84326674481383 87.04379788126762 86.16102460309094 85.19843081311198 84.15981542925253 83.04927739193447 81.8711994874345 80.63023105102907 79.33126961819217 77.97944159626013 76.58008203284406 75.1387135608342 73.66102460309094 72.15284692283862 70.62013260836036 69.06893058282486 67.50536273195009 65.93559974371725 64.36583675548441 62.80226890460964 61.25106687907413 59.71835256459588 58.210174884343566 56.7324859266003 55.29111745459044 53.891757891174365 52.539929869242336 51.24096843640543 50.00000000000001 48.82192209550004 47.711384058181956 46.67276867432251 45.710174884343566 44.827401606166866 44.027932742620656 43.31492343206675 42.69118759651096 42.15918683633841 41.72102071550147 41.37841847550003 41.1327322108553 40.98493153301046 40.93559974371725 40.98493153301046 41.1327322108553 41.37841847550003 41.72102071550147 42.15918683633841 42.69118759651096 43.31492343206675 44.02793274262066 44.82740160616687 45.71017488434356 46.672768674322505 47.71138405818194 48.82192209550003 50.00000000000001 51.24096843640541 52.53992986924232 53.89175789117434 55.29111745459042 56.732485926600305 58.21017488434356 59.71835256459586 61.25106687907413 62.80226890460963 64.36583675548441 65.93559974371723
67.11367764821722 68.68344063645006 70.24700848732482 71.79821051286034 73.33092482733859 74.8391025075909 76.31679146533418 77.75815993734403 79.1575195007601 80.50934752269214 81.80830895552904 83.04927739193445 84.22735529643444 85.3378933337525 86.37650871761196 87.3391025075909 88.2218757857676 89.02134464931382 89.7343539598677 90.3580897954235 90.89009055559606 91.328256676433 91.67085891643444 91.91654518107916 92.06434585892401 92.11367764821722 92.06434585892401 91.91654518107916 91.67085891643444 91.328256676433 90.89009055559606 90.35808979542351 89.7343539598677 89.0213446493138 88.2218757857676 87.33910250759091 86.37650871761196 85.3378933337525 84.22735529643444 83.04927739193447 81.80830895552904 80.50934752269214 79.1575195007601 77.75815993734403 76.31679146533418 74.83910250759091 73.3309248273386 71.79821051286034 70.24700848732483 68.68344063645006 67.11367764821722 65.54391465998438 63.98034680910961 62.4291447835741 60.896430469095854 59.38825278884354 57.91056383110027 56.46919535909041 55.06983579567434 53.71800777374231 52.4190463409054 51.17807790449998 50.000000000000014 48.889461962681935 47.850846578822484 46.88825278884354 46.00547951066684 45.20601064712063 44.49300133656672 43.86926550101093 43.33726474083838 42.89909862000144 42.55649638 42.310810115355274 42.16300943751043 42.11367764821722 42.16300943751043 42.310810115355274 42.55649638 42.89909862000144 43.33726474083838 43.86926550101093 44.49300133656672 45.206010647120635 46.005479510666845 46.88825278884353 47.850846578822484 48.88946196268192 50.0 51.17807790449998 52.41904634090538 53.71800777374229 55.069835795674315 56.46919535909039 57.910563831100276 59.38825278884353 60.89643046909583 62.4291447835741 63.980346809109605 65.54391465998438 67.11367764821722
68.22421568553528 69.79397867376812 71.35754652464288 72.9087485501784 74.44146286465666 75.94964054490896 77.42732950265224 78.8686979746621 80.26805753807817 81.6198855600102 82.91884699284711 84.15981542925252 85.3378933337525 86.44843137107057 87.48704675493002 88.44964054490896 89.33241382308566 90.13188268663188 90.84489199718577 91.46862783274156 92.00062859291413 92.43879471375107 92.7813969537525 93.02708321839722 93.17488389624208 93.22421568553528 93.17488389624208 93.02708321839722 92.7813969537525 92.43879471375107 92.00062859291413 91.46862783274157 90.84489199718577 90.13188268663187 89.33241382308566 88.44964054490897 87.48704675493002 86.44843137107057 85.3378933337525 84.15981542925253 82.91884699284711 81.6198855600102 80.26805753807817 78.8686979746621 77.42732950265224 75.94964054490897 74.44146286465667 72.9087485501784 71.3575465246429 69.79397867376812 68.22421568553528 66.65445269730245 65.09088484642768 63.53968282089217 62.00696850641392 60.4987908261616 59.021101868418334 57.57973339640848 56.1803738329924 54.82854581106037 53.52958437822347 52.288615941818044 51.11053803731808 50.0 48.96138461614055 47.9987908261616 47.1160175479849 46.31654868443869 45.603539373884786 44.979803538328994 44.44780277815644 44.009636657319504 43.667034417318064 43.42134815267334 43.2735474748285 43.224215685535285 43.2735474748285 43.42134815267334 43.667034417318064 44.009636657319504 44.44780277815644 44.979803538328994 45.603539373884786 46.3165486844387 47.11601754798491 47.998790826161596 48.96138461614055 49.999999999999986 51.110538037318065 52.288615941818044 53.52958437822345 54.82854581106036 56.18037383299238 57.57973339640846 59.02110186841834 60.498790826161596 62.0069685064139 63.53968282089217 65.09088484642767 66.65445269730245 68.22421568553528
69.26283106939474 70.83259405762756 72.39616190850234 73.94736393403785 75.48007824851611 76.98825592876841 78.46594488651168 79.90731335852155 81.30667292193762 82.65850094386965 83.95746237670656 85.19843081311197 86.37650871761196 87.48704675493002 88.52566213878947 89.48825592876841 90.37102920694511 91.17049807049133 91.88350738104522 92.50724321660101 93.03924397677358 93.47741009761052 93.82001233761196 94.06569860225667 94.21349928010153 94.26283106939474 94.21349928010153 94.06569860225667 93.82001233761196 93.47741009761052 93.03924397677358 92.50724321660103 91.88350738104522 91.17049807049132 90.37102920694511 89.48825592876842 88.52566213878947 87.48704675493002 86.37650871761196 85.19843081311198 83.95746237670656 82.65850094386965 81.30667292193762 79.90731335852155 78.46594488651169 76.98825592876842 75.48007824851611 73.94736393403785 72.39616190850235 70.83259405762757 69.26283106939474 67.6930680811619 66.12950023028712 64.57829820475162 63.04558389027336 61.53740621002105 60.05971725227778 58.61834878026792 57.21898921685185 55.86716119491982 54.56819976208291 53.32723132567749 52.14915342117753 51.038615383859444 50.0 49.03740621002105 48.15463293184435 47.35516406829814 46.64215475774424 46.018418922188445 45.486418162015894 45.048252041178955 44.705649801177515 44.45996353653278 44.31216285868794 44.262831069394736 44.31216285868794 44.45996353653278 44.705649801177515 45.048252041178955 45.486418162015894 46.018418922188445 46.64215475774424 47.35516406829815 48.15463293184436 49.03740621002105 49.99999999999999 51.03861538385943 52.149153421177516 53.32723132567749 54.5681997620829 55.8671611949198 57.218989216851824 58.61834878026791 60.05971725227779 61.53740621002105 63.04558389027335 64.57829820475162 66.12950023028712 67.6930680811619 69.26283106939472
70.22542485937369 71.79518784760651 73.35875569848129 74.9099577240168 76.44267203849506 77.95084971874736 79.42853867649063 80.8699071485005 82.26926671191657 83.62109473384861 84.92005616668551 86.16102460309092 87.33910250759091 88.44964054490897 89.48825592876842 90.45084971874736 91.33362299692406 92.13309186047029 92.84610117102417 93.46983700657997 94.00183776675253 94.44000388758947 94.78260612759091 95.02829239223563 95.17609307008048 95.22542485937369 95.17609307008048 95.02829239223563 94.78260612759091 94.44000388758947 94.00183776675253 93.46983700657998 92.84610117102417 92.13309186047027 91.33362299692406 90.45084971874738 89.48825592876842 88.44964054490897 87.33910250759091 86.16102460309094 84.92005616668551 83.62109473384861 82.26926671191657 80.8699071485005 79.42853867649065 77.95084971874738 76.44267203849506 74.9099577240168 73.3587556984813 71.79518784760653 70.22542485937369 68.65566187114085 67.09209402026607 65.54089199473057 64.00817768025232 62.5 61.02231104225673 59.580942570246876 58.181583006830806 56.82975498489877 55.530793552061866 54.28982511565644 53.111747211156484 52.0012091738384 50.96259378997895 50.0 49.1172267218233 48.31775785827709 47.60474854772319 46.9810127121674 46.44901195199485 46.01084583115791 45.66824359115647 45.422557326511736 45.274756648666894 45.22542485937369 45.274756648666894 45.422557326511736 45.66824359115647 46.01084583115791 46.44901195199485 46.9810127121674 47.60474854772319 48.317757858277105 49.117226721823315 50.0 50.962593789978946 52.00120917383838 53.11174721115647 54.28982511565644 55.53079355206185 56.829754984898756 58.18158300683078 59.58094257024686 61.022311042256746 62.5 64.0081776802523 65.54089199473057 67.09209402026607 68.65566187114085 70.22542485937367
71.10819813755037 72.67796112578321 74.24152897665797 75.79273100219349 77.32544531667175 78.83362299692405 80.31131195466733 81.75268042667719 83.15203999009326 84.5038680120253 85.8028294448622 87.04379788126761 88.2218757857676 89.33241382308566 90.37102920694511 91.33362299692405 92.21639627510075 93.01586513864697 93.72887444920086 94.35261028475665 94.88461104492922 95.32277716576615 95.6653794057676 95.91106567041231 96.05886634825717 96.10819813755037 96.05886634825717 95.91106567041231 95.6653794057676 95.32277716576615 94.88461104492922 94.35261028475666 93.72887444920086 93.01586513864696 92.21639627510075 91.33362299692406 90.37102920694511 89.33241382308566 88.2218757857676 87.04379788126762 85.8028294448622 84.5038680120253 83.15203999009326 81.75268042667719 80.31131195466733 78.83362299692406 77.32544531667176 75.79273100219349 74.24152897665799 72.67796112578321 71.10819813755037 69.53843514931754 67.97486729844277 66.42366527290726 64.89095095842902 63.38277327817669 61.905084320433424 60.46371584842357 59.06435628500749 57.71252826307546 56.41356683023856 55.172598393833134 53.99452048933317 52.88398245201509 51.84536706815564 50.88277327817669 49.99999999999999 49.20053113645378 48.487521825899876 47.863785990344084 47.33178523017153 46.893619109334594 46.551016869333154 46.30533060468843 46.15752992684359 46.108198137550374 46.15752992684359 46.30533060468843 46.551016869333154 46.893619109334594 47.33178523017153 47.863785990344084 48.487521825899876 49.20053113645379 50.0 50.882773278176685 51.84536706815564 52.883982452015076 53.994520489333155 55.172598393833134 56.41356683023854 57.71252826307545 59.06435628500747 60.46371584842355 61.90508432043343 63.382773278176685 64.89095095842899 66.42366527290726 67.97486729844276 69.53843514931754 71.10819813755037
71.90766700109658 73.47742998932942 75.0409978402042 76.5921998657397 78.12491418021796 79.63309186047027 81.11078081821354 82.5521492902234 83.95150885363947 85.3033368755715 86.60229830840841 87.84326674481382 89.0213446493138 90.13188268663187 91.17049807049132 92.13309186047026 93.01586513864696 93.81533400219318 94.52834331274707 95.15207914830286 95.68407990847543 96.12224602931236 96.4648482693138 96.71053453395852 96.85833521180338 96.90766700109658 96.85833521180338 96.71053453395852 96.4648482693138 96.12224602931236 95.68407990847543 95.15207914830287 94.52834331274707 93.81533400219317 93.01586513864696 92.13309186047027 91.17049807049132 90.13188268663187 89.0213446493138 87.84326674481383 86.60229830840841 85.30333687557152 83.95150885363947 82.55214929022341 81.11078081821354 79.63309186047027 78.12491418021797 76.5921998657397 75.0409978402042 73.47742998932942 71.90766700109658 70.33790401286376 68.77433616198898 67.22313413645347 65.69041982197523 64.18224214172291 62.70455318397964 61.263184711969785 59.8638251485537 58.51199712662168 57.213035693784775 55.97206725737935 54.79398935287938 53.6834513155613 52.64483593170185 51.68224214172291 50.79946886354621 50.0 49.28699068944609 48.6632548538903 48.13125409371775 47.693087972880804 47.35048573287937 47.104799468234646 46.956998790389804 46.907667001096584 46.956998790389804 47.104799468234646 47.35048573287937 47.69308797288081 48.13125409371774 48.663254853890294 49.286990689446085 50.0 50.79946886354621 51.682242141722895 52.64483593170185 53.683451315561285 54.793989352879365 55.97206725737935 57.21303569378475 58.511997126621665 59.86382514855369 61.26318471196976 62.70455318397964 64.1822421417229 65.6904198219752 67.22313413645347 68.77433616198897 70.33790401286376 71.90766700109658
72.62067631165048 74.19043929988332 75.7540071507581 77.3052091762936 78.83792349077186 80.34610117102417 81.82379012876744 83.2651586007773 84.66451816419337 86.0163461861254 87.31530761896231 88.55627605536772 89.7343539598677 90.84489199718577 91.88350738104522 92.84610117102416 93.72887444920086 94.52834331274708 95.24135262330097 95.86508845885676 96.39708921902933 96.83525533986626 97.1778575798677 97.42354384451242 97.57134452235728 97.62067631165048 97.57134452235728 97.42354384451242 97.1778575798677 96.83525533986626 96.39708921902933 95.86508845885677 95.24135262330097 94.52834331274707 93.72887444920086 92.84610117102417 91.88350738104522 90.84489199718577 89.7343539598677 88.55627605536773 87.31530761896231 86.01634618612542 84.66451816419337 83.26515860077731 81.82379012876744 80.34610117102417 78.83792349077187 77.3052091762936 75.7540071507581 74.19043929988332 72.62067631165048 71.05091332341766 69.48734547254288 67.93614344700737 66.40342913252913 64.89525145227681 63.41756249453354 61.976194022523686 60.5768344591076 59.22500643717558 57.926045004338675 56.68507656793325 55.50699866343328 54.3964606261152 53.35784524225575 52.39525145227681 51.51247817410011 50.7130093105539 49.99999999999999 49.3762641644442 48.84426340427165 48.406097283434704 48.06349504343327 47.817808778788546 47.670008100943704 47.620676311650485 47.670008100943704 47.817808778788546 48.06349504343327 48.40609728343471 48.84426340427164 49.376264164444194 49.999999999999986 50.7130093105539 51.51247817410011 52.395251452276796 53.35784524225575 54.396460626115186 55.506998663433265 56.68507656793325 57.92604500433865 59.225006437175566 60.57683445910759 61.97619402252366 63.41756249453354 64.8952514522768 66.4034291325291 67.93614344700737 69.48734547254287 71.05091332341766 72.62067631165048
73.24441214720629 74.81417513543911 76.37774298631389 77.92894501184941 79.46165932632766 80.96983700657997 82.44752596432323 83.8888944363331 85.28825399974917 86.64008202168121 87.93904345451811 89.18001189092352 90.35808979542351 91.46862783274157 92.50724321660103 93.46983700657997 94.35261028475666 95.15207914830289 95.86508845885677 96.48882429441257 97.02082505458513 97.45899117542207 97.80159341542351 98.04727968006823 98.19508035791308 98.24441214720629 98.19508035791308 98.04727968006823 97.80159341542351 97.45899117542207 97.02082505458513 96.48882429441258 95.86508845885677 95.15207914830287 94.35261028475666 93.46983700657998 92.50724321660103 91.46862783274157 90.35808979542351 89.18001189092354 87.93904345451811 86.64008202168121 85.28825399974917 83.8888944363331 82.44752596432325 80.96983700657998 79.46165932632766 77.92894501184941 76.3777429863139 74.81417513543913 73.24441214720629 71.67464915897345 70.11108130809868 68.55987928256317 67.02716496808492 65.5189872878326 64.04129833008933 62.59992985807948 61.20057029466341 59.84874227273137 58.54978083989447 57.30881240348904 56.130734498989085 55.020196461671 53.981581077811555 53.0189872878326 52.1362140096559 51.33674514610969 50.62373583555579 50.0 49.46799923982745 49.02983311899051 48.68723087898907 48.44154461434434 48.293743936499496 48.24441214720629 48.293743936499496 48.44154461434434 48.68723087898907 49.02983311899051 49.46799923982745 50.0 50.62373583555579 51.336745146109706 52.136214009655916 53.0189872878326 53.98158107781155 55.020196461670984 56.13073449898907 57.30881240348904 58.54978083989445 59.84874227273136 61.20057029466338 62.59992985807946 64.04129833008935 65.5189872878326 67.0271649680849 68.55987928256317 70.11108130809868 71.67464915897345 73.24441214720628
73.77641290737884 75.34617589561168 76.90974374648644 78.46094577202196 79.99366008650021 81.50183776675252 82.9795267244958 84.42089519650565 85.82025475992172 87.17208278185376 88.47104421469066 89.71201265109607 90.89009055559606 92.00062859291413 93.03924397677358 94.00183776675252 94.88461104492922 95.68407990847544 96.39708921902933 97.02082505458512 97.55282581475768 97.99099193559462 98.33359417559606 98.57928044024078 98.72708111808564 98.77641290737884 98.72708111808564 98.57928044024078 98.33359417559606 97.99099193559462 97.55282581475768 97.02082505458513 96.39708921902933 95.68407990847543 94.88461104492922 94.00183776675253 93.03924397677358 92.00062859291413 90.89009055559606 89.71201265109609 88.47104421469066 87.17208278185376 85.82025475992172 84.42089519650565 82.9795267244958 81.50183776675253 79.99366008650023 78.46094577202196 76.90974374648646 75.34617589561168 73.77641290737884 72.206649919146 70.64308206827124 69.09188004273572 67.55916572825748 66.05098804800517 64.57329909026188 63.131930618252035 61.73257105483596 60.38074303290393 59.081781600067025 57.8408131636616 56.662735259161636 55.55219722184356 54.513581837984106 53.55098804800516 52.66821476982846 51.86874590628225 51.15573659572834 50.53200076017255 50.0 49.56183387916306 49.21923163916162 48.973545374516895 48.825744696672054 48.77641290737884 48.825744696672054 48.973545374516895 49.21923163916162 49.56183387916306 50.0 50.53200076017255 51.15573659572834 51.86874590628226 52.66821476982847 53.55098804800515 54.513581837984106 55.55219722184354 56.66273525916162 57.8408131636616 59.081781600067 60.380743032903915 61.73257105483594 63.131930618252014 64.5732990902619 66.05098804800515 67.55916572825745 69.09188004273572 70.64308206827123 72.206649919146 73.77641290737884
74.21457902821578 75.7843420164486 77.34790986732338 78.8991118928589 80.43182620733715 81.94000388758946 83.41769284533272 84.8590613173426 86.25842088075866 87.6102489026907 88.9092103355276 90.15017877193301 91.328256676433 92.43879471375107 93.47741009761052 94.44000388758946 95.32277716576615 96.12224602931238 96.83525533986626 97.45899117542206 97.99099193559462 98.42915805643156 98.771760296433 99.01744656107772 99.16524723892257 99.21457902821578 99.16524723892257 99.01744656107772 98.771760296433 98.42915805643156 97.99099193559462 97.45899117542207 96.83525533986626 96.12224602931236 95.32277716576615 94.44000388758947 93.47741009761052 92.43879471375107 91.328256676433 90.15017877193303 88.9092103355276 87.6102489026907 86.25842088075866 84.8590613173426 83.41769284533274 81.94000388758947 80.43182620733715 78.8991118928589 77.3479098673234 75.78434201644862 74.21457902821578 72.64481603998294 71.08124818910817 69.53004616357266 67.99733184909441 66.48915416884209 65.01146521109882 63.57009673908897 62.1707371756729 60.81890915374086 59.51994772090396 58.27897928449853 57.100901379998575 55.99036334268049 54.951747958821045 53.98915416884209 53.10638089066539 52.30691202711918 51.59390271656528 50.97016688100949 50.43816612083694 50.0 49.65739775999856 49.41171149535383 49.263910817508986 49.21457902821578 49.263910817508986 49.41171149535383 49.65739775999856 50.0 50.43816612083694 50.97016688100949 51.59390271656528 52.306912027119196 53.106380890665406 53.98915416884209 54.95174795882104 55.990363342680475 57.10090137999856 58.27897928449853 59.51994772090394 60.81890915374085 62.17073717567287 63.57009673908895 65.01146521109884 66.48915416884209 67.9973318490944 69.53004616357266 71.08124818910817 72.64481603998294 74.21457902821577
74.55718126821722 76.12694425645005 77.69051210732482 79.24171413286034 80.7744284473386 82.2826061275909 83.76029508533416 85.20166355734403 86.6010231207601 87.95285114269214 89.25181257552904 90.49278101193445 91.67085891643444 92.7813969537525 93.82001233761196 94.7826061275909 95.6653794057676 96.46484826931382 97.1778575798677 97.8015934154235 98.33359417559606 98.771760296433 99.11436253643444 99.36004880107916 99.50784947892402 99.55718126821722 99.50784947892402 99.36004880107916 99.11436253643444 98.771760296433 98.33359417559606 97.80159341542351 97.1778575798677 96.4648482693138 95.6653794057676 94.78260612759091 93.82001233761196 92.7813969537525 91.67085891643444 90.49278101193447 89.25181257552904 87.95285114269214 86.6010231207601 85.20166355734403 83.76029508533418 82.28260612759091 80.7744284473386 79.24171413286034 77.69051210732484 76.12694425645006 74.55718126821722 72.98741827998438 71.4238504291096 69.8726484035741 68.33993408909585 66.83175640884353 65.35406745110026 63.91269897909041 62.51333941567434 61.1615113937423 59.8625499609054 58.62158152449997 57.443503620000016 56.33296558268193 55.294350198822485 54.33175640884353 53.44898313066683 52.64951426712062 51.93650495656672 51.31276912101093 50.78076836083838 50.34260224000144 50.0 49.75431373535527 49.606513057510426 49.55718126821722 49.606513057510426 49.75431373535527 50.0 50.34260224000144 50.78076836083838 51.31276912101093 51.93650495656672 52.64951426712064 53.448983130666846 54.33175640884353 55.29435019882248 56.332965582681915 57.44350362 58.62158152449997 59.86254996090538 61.16151139374229 62.51333941567431 63.91269897909039 65.35406745110028 66.83175640884353 68.33993408909583 69.8726484035741 71.4238504291096 72.98741827998438 74.5571812682172
74.80286753286194 76.37263052109478 77.93619837196955 79.48740039750507 81.02011471198333 82.52829239223563 84.0059813499789 85.44734982198875 86.84670938540484 88.19853740733686 89.49749884017376 90.73846727657917 91.91654518107916 93.02708321839722 94.06569860225667 95.02829239223561 95.91106567041231 96.71053453395854 97.42354384451244 98.04727968006821 98.57928044024078 99.01744656107772 99.36004880107916 99.60573506572388 99.75353574356873 99.80286753286194 99.75353574356873 99.60573506572388 99.36004880107916 99.01744656107772 98.57928044024078 98.04727968006824 97.42354384451244 96.71053453395854 95.91106567041231 95.02829239223564 94.06569860225667 93.02708321839722 91.91654518107916 90.7384672765792 89.49749884017376 88.19853740733687 86.84670938540484 85.44734982198877 84.0059813499789 82.52829239223564 81.02011471198333 79.48740039750507 77.93619837196957 76.37263052109478 74.80286753286194 73.23310454462911 71.66953669375434 70.11833466821884 68.58562035374058 67.07744267348826 65.599753715745 64.15838524373514 62.75902568031906 61.407197658387034 60.10823622555013 58.867267789144705 57.68918988464474 56.578651847326654 55.54003646346721 54.577442673488264 53.694669395311564 52.895200531765354 52.182191221211454 51.55845538565566 51.02645462548311 50.588288504646165 50.24568626464473 50.0 49.85219932215516 49.802867532861946 49.85219932215516 50.0 50.24568626464473 50.58828850464617 51.026454625483105 51.558455385655655 52.18219122121145 52.89520053176536 53.69466939531157 54.57744267348826 55.5400364634672 56.57865184732664 57.689189884644726 58.867267789144705 60.10823622555011 61.40719765838702 62.75902568031904 64.15838524373513 65.59975371574501 67.07744267348826 68.58562035374055 70.11833466821884 71.66953669375434 73.23310454462911 74.80286753286194
74.9506682107068 76.52043119893962 78.0839990498144 79.6352010753499 81.16791538982815 82.67609307008047 84.15378202782374 85.59515049983361 86.99451006324966 88.34633808518171 89.64529951801862 90.88626795442403 92.06434585892401 93.17488389624208 94.21349928010153 95.17609307008047 96.05886634825717 96.8583352118034 97.57134452235726 98.19508035791307 98.72708111808564 99.16524723892257 99.50784947892402 99.75353574356873 99.90133642141359 99.9506682107068 99.90133642141359 99.75353574356873 99.50784947892402 99.16524723892257 98.72708111808564 98.19508035791307 97.57134452235726 96.85833521180336 96.05886634825717 95.17609307008047 94.21349928010153 93.17488389624208 92.06434585892401 90.88626795442403 89.64529951801862 88.34633808518171 86.99451006324966 85.59515049983361 84.15378202782375 82.67609307008047 81.16791538982817 79.6352010753499 78.0839990498144 76.52043119893963 74.9506682107068 73.38090522247396 71.81733737159918 70.26613534606366 68.73342103158542 67.2252433513331 65.74755439358984 64.30618592157998 62.906826358163904 61.554998336231876 60.25603690339497 59.01506846698955 57.83699056248958 56.726452525171496 55.68783714131205 54.725243351333106 53.842470073156406 53.043001209610196 52.329991899056296 51.706256063500504 51.17425530332795 50.73608918249101 50.393486942489574 50.14780067784484 50.0 49.95066821070679 50.0 50.14780067784484 50.393486942489574 50.736089182491014 51.174255303327946 51.7062560635005 52.32999189905629 53.0430012096102 53.84247007315641 54.7252433513331 55.687837141312045 56.72645252517148 57.83699056248957 59.01506846698955 60.25603690339495 61.55499833623186 62.90682635816388 64.30618592157995 65.74755439358984 67.22524335133309 68.73342103158541 70.26613534606366 71.81733737159917 73.38090522247396 74.95066821070678
75.0 76.56976298823284 78.1333308391076 79.68453286464312 81.21724717912137 82.72542485937367 84.20311381711696 85.64448228912681 87.04384185254288 88.39566987447492 89.69463130731182 90.93559974371723 92.11367764821722 93.22421568553528 94.26283106939474 95.22542485937367 96.10819813755037 96.9076670010966 97.62067631165048 98.24441214720628 98.77641290737884 99.21457902821578 99.55718126821722 99.80286753286194 99.9506682107068 100.0 99.9506682107068 99.80286753286194 99.55718126821722 99.21457902821578 98.77641290737884 98.24441214720629 97.62067631165048 96.90766700109658 96.10819813755037 95.22542485937369 94.26283106939474 93.22421568553528 92.11367764821722 90.93559974371725 89.69463130731182 88.39566987447492 87.04384185254288 85.64448228912681 84.20311381711696 82.72542485937369 81.21724717912139 79.68453286464312 78.13333083910761 76.56976298823284 75.0 73.43023701176716 71.8666691608924 70.31546713535688 68.78275282087864 67.27457514062633 65.79688618288304 64.35551771087319 62.95615814745712 61.60433012552509 60.305368692688184 59.06440025628276 57.886322351782795 56.775784314464715 55.737168930605264 54.77457514062632 53.89180186244962 53.09233299890341 52.3793236883495 51.75558785279371 51.22358709262116 50.78542097178422 50.44281873178278 50.197132467138054 50.04933178929321 50.0 50.04933178929321 50.197132467138054 50.44281873178278 50.78542097178422 51.22358709262116 51.75558785279371 52.3793236883495 53.092332998903416 53.891801862449626 54.77457514062631 55.737168930605264 56.7757843144647 57.88632235178278 59.06440025628276 60.30536869268816 61.604330125525074 62.956158147457096 64.35551771087317 65.79688618288306 67.27457514062631 68.78275282087861 70.31546713535688 71.86666916089239 73.43023701176716 75.0
74.9506682107068 76.52043119893962 78.0839990498144 79.6352010753499 81.16791538982815 82.67609307008047 84.15378202782374 85.59515049983361 86.99451006324966 88.34633808518171 89.64529951801862 90.88626795442403 92.06434585892401 93.17488389624208 94.21349928010153 95.17609307008047 96.05886634825717 96.8583352118034 97.57134452235726 98.19508035791307 98.72708111808564 99.16524723892257 99.50784947892402 99.75353574356873 99.90133642141359 99.9506682107068 99.90133642141359 99.75353574356873 99.50784947892402 99.16524723892257 98.72708111808564 98.19508035791307 97.57134452235726 96.85833521180336 96.05886634825717 95.17609307008047 94.21349928010153 93.17488389624208 92.06434585892401 90.88626795442403 89.64529951801862 88.34633808518171 86.99451006324966 85.59515049983361 84.15378202782375 82.67609307008047 81.16791538982817 79.6352010753499 78.0839990498144 76.52043119893963 74.9506682107068 73.38090522247396 71.81733737159918 70.26613534606366 68.73342103158542 67.2252433513331 65.74755439358984 64.30618592157998 62.906826358163904 61.554998336231876 60.25603690339497 59.01506846698955 57.83699056248958 56.726452525171496 55.68783714131205 54.725243351333106 53.842470073156406 53.043001209610196 52.329991899056296 51.706256063500504 51.17425530332795 50.73608918249101 50.393486942489574 50.14780067784484 50.0 49.95066821070679 50.0 50.14780067784484 50.393486942489574 50.736089182491014 51.174255303327946 51.7062560635005 52.32999189905629 53.0430012096102 53.84247007315641 54.7252433513331 55.687837141312045 56.72645252517148 57.83699056248957 59.01506846698955 60.25603690339495 61.55499833623186 62.90682635816388 64.30618592157995 65.74755439358984 67.22524335133309 68.73342103158541 70.26613534606366 71.81733737159917 73.38090522247396 74.95066821070678
74.80286753286194 76.37263052109478 77.93619837196955 79.48740039750507 81.02011471198333 82.52829239223563 84.0059813499789 85.44734982198875 86.84670938540484 88.19853740733686 89.49749884017376 90.73846727657917 91.91654518107916 93.02708321839722 94.06569860225667 95.02829239223561 95.91106567041231 96.71053453395854 97.42354384451244 98.04727968006821 98.57928044024078 99.01744656107772 99.36004880107916 99.60573506572388 99.75353574356873 99.80286753286194 99.75353574356873 99.60573506572388 99.36004880107916 99.01744656107772 98.57928044024078 98.04727968006824 97.42354384451244 96.71053453395854 95.91106567041231 95.02829239223564 94.06569860225667 93.02708321839722 91.91654518107916 90.7384672765792 89.49749884017376 88.19853740733687 86.84670938540484 85.44734982198877 84.0059813499789 82.52829239223564 81.02011471198333 79.48740039750507 77.93619837196957 76.37263052109478 74.80286753286194 73.23310454462911 71.66953669375434 70.11833466821884 68.58562035374058 67.07744267348826 65.599753715745 64.15838524373514 62.75902568031906 61.407197658387034 60.10823622555013 58.867267789144705 57.68918988464474 56.578651847326654 55.54003646346721 54.577442673488264 53.694669395311564 52.895200531765354 52.182191221211454 51.55845538565566 51.02645462548311 50.588288504646165 50.24568626464473 50.0 49.85219932215516 49.802867532861946 49.85219932215516 50.0 50.24568626464473 50.58828850464617 51.026454625483105 51.558455385655655 52.18219122121145 52.89520053176536 53.69466939531157 54.57744267348826 55.5400364634672 56.57865184732664 57.689189884644726 58.867267789144705 60.10823622555011 61.40719765838702 62.75902568031904 64.15838524373513 65.59975371574501 67.07744267348826 68.58562035374055 70.11833466821884 71.66953669375434 73.23310454462911 74.80286753286194
74.55718126821722 76.12694425645005 77.69051210732482 79.24171413286032 80.77442844733858 82.2826061275909 83.76029508533416 85.20166355734403 86.60102312076009 87.95285114269214 89.25181257552904 90.49278101193445 91.67085891643444 92.7813969537525 93.82001233761196 94.7826061275909 95.6653794057676 96.46484826931382 97.17785757986769 97.8015934154235 98.33359417559606 98.771760296433 99.11436253643444 99.36004880107916 99.50784947892402 99.55718126821722 99.50784947892402 99.36004880107916 99.11436253643444 98.771760296433 98.33359417559606 97.8015934154235 97.17785757986769 96.46484826931379 95.6653794057676 94.7826061275909 93.82001233761196 92.7813969537525 91.67085891643444 90.49278101193445 89.25181257552904 87.95285114269214 86.60102312076009 85.20166355734403 83.76029508533418 82.2826061275909 80.7744284473386 79.24171413286032 77.69051210732482 76.12694425645006 74.55718126821722 72.98741827998438 71.4238504291096 69.87264840357409 68.33993408909585 66.83175640884353 65.35406745110026 63.91269897909041 62.51333941567433 61.1615113937423 59.8625499609054 58.62158152449997 57.44350362000001 56.33296558268192 55.29435019882248 54.33175640884353 53.44898313066683 52.64951426712062 51.93650495656672 51.31276912101093 50.78076836083838 50.34260224000143 50.0 49.75431373535527 49.606513057510426 49.557181268217214 49.606513057510426 49.75431373535527 50.0 50.34260224000144 50.78076836083837 51.31276912101092 51.936504956566715 52.64951426712063 53.44898313066684 54.331756408843525 55.29435019882247 56.33296558268191 57.443503619999994 58.62158152449997 59.862549960905376 61.16151139374229 62.51333941567431 63.912698979090386 65.35406745110026 66.83175640884352 68.33993408909583 69.87264840357409 71.42385042910959 72.98741827998438 74.5571812682172
74.21457902821578 75.7843420164486 77.34790986732338 78.8991118928589 80.43182620733715 81.94000388758946 83.41769284533272 84.8590613173426 86.25842088075866 87.6102489026907 88.9092103355276 90.15017877193301 91.328256676433 92.43879471375107 93.47741009761052 94.44000388758946 95.32277716576615 96.12224602931238 96.83525533986626 97.45899117542206 97.99099193559462 98.42915805643156 98.771760296433 99.01744656107772 99.16524723892257 99.21457902821578 99.16524723892257 99.01744656107772 98.771760296433 98.42915805643156 97.99099193559462 97.45899117542207 96.83525533986626 96.12224602931236 95.32277716576615 94.44000388758947 93.47741009761052 92.43879471375107 91.328256676433 90.15017877193303 88.9092103355276 87.6102489026907 86.25842088075866 84.8590613173426 83.41769284533274 81.94000388758947 80.43182620733715 78.8991118928589 77.3479098673234 75.78434201644862 74.21457902821578 72.64481603998294 71.08124818910817 69.53004616357266 67.99733184909441 66.48915416884209 65.01146521109882 63.57009673908897 62.1707371756729 60.81890915374086 59.51994772090396 58.27897928449853 57.100901379998575 55.99036334268049 54.951747958821045 53.98915416884209 53.10638089066539 52.30691202711918 51.59390271656528 50.97016688100949 50.43816612083694 50.0 49.65739775999856 49.41171149535383 49.263910817508986 49.21457902821578 49.263910817508986 49.41171149535383 49.65739775999856 50.0 50.43816612083694 50.97016688100949 51.59390271656528 52.306912027119196 53.106380890665406 53.98915416884209 54.95174795882104 55.990363342680475 57.10090137999856 58.27897928449853 59.51994772090394 60.81890915374085 62.17073717567287 63.57009673908895 65.01146521109884 66.48915416884209 67.9973318490944 69.53004616357266 71.08124818910817 72.64481603998294 74.21457902821577
73.77641290737884 75.34617589561167 76.90974374648644 78.46094577202196 79.99366008650021 81.50183776675252 82.97952672449578 84.42089519650565 85.82025475992172 87.17208278185376 88.47104421469066 89.71201265109607 90.89009055559606 92.00062859291413 93.03924397677358 94.00183776675252 94.88461104492922 95.68407990847544 96.39708921902933 97.02082505458512 97.55282581475768 97.99099193559462 98.33359417559606 98.57928044024078 98.72708111808564 98.77641290737884 98.72708111808564 98.57928044024078 98.33359417559606 97.99099193559462 97.55282581475768 97.02082505458513 96.39708921902933 95.68407990847543 94.88461104492922 94.00183776675253 93.03924397677358 92.00062859291413 90.89009055559606 89.71201265109609 88.47104421469066 87.17208278185376 85.82025475992172 84.42089519650565 82.9795267244958 81.50183776675253 79.99366008650021 78.46094577202196 76.90974374648646 75.34617589561168 73.77641290737884 72.206649919146 70.64308206827123 69.09188004273572 67.55916572825747 66.05098804800515 64.57329909026188 63.13193061825203 61.73257105483596 60.38074303290392 59.08178160006702 57.84081316366159 56.662735259161636 55.55219722184355 54.513581837984106 53.55098804800515 52.66821476982845 51.86874590628224 51.15573659572834 50.53200076017255 50.0 49.56183387916306 49.21923163916162 48.97354537451689 48.82574469667205 48.77641290737884 48.82574469667205 48.97354537451689 49.21923163916162 49.56183387916306 50.0 50.53200076017255 51.15573659572834 51.86874590628226 52.66821476982847 53.55098804800515 54.5135818379841 55.552197221843535 56.66273525916162 57.84081316366159 59.081781600067 60.38074303290391 61.73257105483593 63.131930618252014 64.5732990902619 66.05098804800515 67.55916572825745 69.09188004273572 70.64308206827123 72.206649919146 73.77641290737883
73.24441214720628 74.81417513543911 76.37774298631389 77.92894501184941 79.46165932632766 80.96983700657997 82.44752596432323 83.88889443633309 85.28825399974917 86.6400820216812 87.9390434545181 89.18001189092351 90.3580897954235 91.46862783274156 92.50724321660101 93.46983700657995 94.35261028475665 95.15207914830287 95.86508845885677 96.48882429441255 97.02082505458512 97.45899117542206 97.8015934154235 98.04727968006821 98.19508035791307 98.24441214720628 98.19508035791307 98.04727968006821 97.8015934154235 97.45899117542206 97.02082505458512 96.48882429441258 95.86508845885677 95.15207914830287 94.35261028475665 93.46983700657998 92.50724321660101 91.46862783274156 90.3580897954235 89.18001189092354 87.9390434545181 86.64008202168121 85.28825399974917 83.8888944363331 82.44752596432323 80.96983700657998 79.46165932632766 77.92894501184941 76.3777429863139 74.81417513543911 73.24441214720628 71.67464915897345 70.11108130809868 68.55987928256317 67.02716496808492 65.5189872878326 64.04129833008933 62.59992985807948 61.2005702946634 59.84874227273137 58.54978083989447 57.30881240348904 56.13073449898908 55.02019646167099 53.98158107781155 53.0189872878326 52.1362140096559 51.33674514610969 50.62373583555579 50.0 49.46799923982745 49.0298331189905 48.68723087898907 48.44154461434434 48.293743936499496 48.24441214720628 48.293743936499496 48.44154461434434 48.68723087898907 49.02983311899051 49.46799923982744 49.99999999999999 50.623735835555784 51.3367451461097 52.13621400965591 53.018987287832594 53.98158107781154 55.02019646167098 56.130734498989064 57.30881240348904 58.549780839894446 59.84874227273136 61.20057029466338 62.599929858079456 64.04129833008935 65.5189872878326 67.02716496808489 68.55987928256317 70.11108130809868 71.67464915897345 73.24441214720628
72.62067631165048 74.19043929988332 75.7540071507581 77.3052091762936 78.83792349077186 80.34610117102417 81.82379012876744 83.2651586007773 84.66451816419337 86.0163461861254 87.31530761896231 88.55627605536772 89.7343539598677 90.84489199718577 91.88350738104522 92.84610117102416 93.72887444920086 94.52834331274708 95.24135262330097 95.86508845885676 96.39708921902933 96.83525533986626 97.1778575798677 97.42354384451242 97.57134452235728 97.62067631165048 97.57134452235728 97.42354384451242 97.1778575798677 96.83525533986626 96.39708921902933 95.86508845885677 95.24135262330097 94.52834331274707 93.72887444920086 92.84610117102417 91.88350738104522 90.84489199718577 89.7343539598677 88.55627605536773 87.31530761896231 86.01634618612542 84.66451816419337 83.26515860077731 81.82379012876744 80.34610117102417 78.83792349077187 77.3052091762936 75.7540071507581 74.19043929988332 72.62067631165048 71.05091332341766 69.48734547254288 67.93614344700737 66.40342913252913 64.89525145227681 63.41756249453354 61.976194022523686 60.5768344591076 59.22500643717558 57.926045004338675 56.68507656793325 55.50699866343328 54.3964606261152 53.35784524225575 52.39525145227681 51.51247817410011 50.7130093105539 49.99999999999999 49.3762641644442 48.84426340427165 48.406097283434704 48.06349504343327 47.817808778788546 47.670008100943704 47.620676311650485 47.670008100943704 47.817808778788546 48.06349504343327 48.40609728343471 48.84426340427164 49.376264164444194 49.999999999999986 50.7130093105539 51.51247817410011 52.395251452276796 53.35784524225575 54.396460626115186 55.506998663433265 56.68507656793325 57.92604500433865 59.225006437175566 60.57683445910759 61.97619402252366 63.41756249453354 64.8952514522768 66.4034291325291 67.93614344700737 69.48734547254287 71.05091332341766 72.62067631165048
71.9076670010966 73.47742998932942 75.0409978402042 76.5921998657397 78.12491418021796 79.63309186047027 81.11078081821354 82.55214929022341 83.95150885363947 85.30333687557152 86.60229830840842 87.84326674481383 89.02134464931382 90.13188268663188 91.17049807049133 92.13309186047027 93.01586513864697 93.8153340021932 94.52834331274707 95.15207914830287 95.68407990847544 96.12224602931238 96.46484826931382 96.71053453395854 96.8583352118034 96.9076670010966 96.8583352118034 96.71053453395854 96.46484826931382 96.12224602931238 95.68407990847544 95.15207914830287 94.52834331274707 93.81533400219317 93.01586513864697 92.13309186047027 91.17049807049133 90.13188268663188 89.02134464931382 87.84326674481383 86.60229830840842 85.30333687557152 83.95150885363947 82.55214929022341 81.11078081821356 79.63309186047027 78.12491418021797 76.5921998657397 75.0409978402042 73.47742998932944 71.9076670010966 70.33790401286376 68.77433616198898 67.22313413645347 65.69041982197523 64.18224214172291 62.70455318397964 61.263184711969785 59.86382514855371 58.51199712662168 57.213035693784775 55.97206725737935 54.793989352879386 53.6834513155613 52.644835931701856 51.68224214172291 50.79946886354621 50.0 49.2869906894461 48.66325485389031 48.13125409371776 47.69308797288081 47.35048573287938 47.104799468234646 46.956998790389804 46.90766700109659 46.956998790389804 47.104799468234646 47.35048573287938 47.69308797288082 48.13125409371775 48.6632548538903 49.28699068944609 50.00000000000001 50.79946886354622 51.6822421417229 52.64483593170185 53.683451315561285 54.79398935287937 55.97206725737935 57.213035693784754 58.511997126621665 59.86382514855369 61.263184711969764 62.70455318397965 64.1822421417229 65.69041982197521 67.22313413645347 68.77433616198897 70.33790401286376 71.90766700109658
71.10819813755037 72.67796112578321 74.24152897665799 75.79273100219349 77.32544531667175 78.83362299692406 80.31131195466733 81.75268042667719 83.15203999009326 84.5038680120253 85.8028294448622 87.04379788126761 88.2218757857676 89.33241382308566 90.37102920694511 91.33362299692405 92.21639627510075 93.01586513864697 93.72887444920086 94.35261028475665 94.88461104492922 95.32277716576615 95.6653794057676 95.91106567041231 96.05886634825717 96.10819813755037 96.05886634825717 95.91106567041231 95.6653794057676 95.32277716576615 94.88461104492922 94.35261028475666 93.72887444920086 93.01586513864696 92.21639627510075 91.33362299692406 90.37102920694511 89.33241382308566 88.2218757857676 87.04379788126762 85.8028294448622 84.50386801202531 83.15203999009326 81.7526804266772 80.31131195466733 78.83362299692406 77.32544531667176 75.79273100219349 74.24152897665799 72.67796112578321 71.10819813755037 69.53843514931755 67.97486729844277 66.42366527290726 64.89095095842902 63.3827732781767 61.90508432043343 60.463715848423575 59.06435628500749 57.71252826307547 56.413566830238565 55.17259839383314 53.99452048933317 52.88398245201509 51.84536706815564 50.8827732781767 50.0 49.20053113645379 48.48752182589988 47.86378599034409 47.33178523017154 46.893619109334594 46.55101686933316 46.305330604688436 46.157529926843594 46.108198137550374 46.157529926843594 46.305330604688436 46.55101686933316 46.8936191093346 47.33178523017153 47.863785990344084 48.487521825899876 49.20053113645379 50.0 50.882773278176685 51.84536706815564 52.883982452015076 53.994520489333155 55.17259839383314 56.41356683023854 57.712528263075455 59.06435628500748 60.46371584842355 61.90508432043343 63.382773278176685 64.89095095842899 66.42366527290726 67.97486729844276 69.53843514931755 71.10819813755037
70.22542485937367 71.79518784760651 73.35875569848129 74.9099577240168 76.44267203849506 77.95084971874736 79.42853867649063 80.86990714850049 82.26926671191657 83.6210947338486 84.9200561666855 86.16102460309091 87.3391025075909 88.44964054490896 89.48825592876841 90.45084971874735 91.33362299692405 92.13309186047027 92.84610117102417 93.46983700657995 94.00183776675252 94.44000388758946 94.7826061275909 95.02829239223561 95.17609307008047 95.22542485937367 95.17609307008047 95.02829239223561 94.7826061275909 94.44000388758946 94.00183776675252 93.46983700657998 92.84610117102417 92.13309186047027 91.33362299692405 90.45084971874738 89.48825592876841 88.44964054490896 87.3391025075909 86.16102460309094 84.9200561666855 83.62109473384861 82.26926671191657 80.8699071485005 79.42853867649063 77.95084971874738 76.44267203849506 74.9099577240168 73.3587556984813 71.79518784760651 70.22542485937367 68.65566187114085 67.09209402026607 65.54089199473057 64.00817768025232 62.5 61.02231104225673 59.580942570246876 58.1815830068308 56.82975498489877 55.530793552061866 54.28982511565644 53.11174721115648 52.00120917383839 50.962593789978946 50.0 49.1172267218233 48.31775785827709 47.60474854772319 46.9810127121674 46.44901195199485 46.0108458311579 45.66824359115647 45.422557326511736 45.274756648666894 45.22542485937368 45.274756648666894 45.422557326511736 45.66824359115647 46.01084583115791 46.44901195199484 46.98101271216739 47.60474854772318 48.3177578582771 49.11722672182331 49.99999999999999 50.96259378997894 52.001209173838376 53.11174721115646 54.28982511565644 55.530793552061844 56.829754984898756 58.18158300683078 59.580942570246854 61.02231104225674 62.49999999999999 64.00817768025229 65.54089199473057 67.09209402026607 68.65566187114085 70.22542485937367
69.26283106939474 70.83259405762756 72.39616190850234 73.94736393403785 75.48007824851611 76.98825592876841 78.46594488651168 79.90731335852155 81.30667292193762 82.65850094386965 83.95746237670656 85.19843081311197 86.37650871761196 87.48704675493002 88.52566213878947 89.48825592876841 90.37102920694511 91.17049807049133 91.88350738104522 92.50724321660101 93.03924397677358 93.47741009761052 93.82001233761196 94.06569860225667 94.21349928010153 94.26283106939474 94.21349928010153 94.06569860225667 93.82001233761196 93.47741009761052 93.03924397677358 92.50724321660103 91.88350738104522 91.17049807049132 90.37102920694511 89.48825592876842 88.52566213878947 87.48704675493002 86.37650871761196 85.19843081311198 83.95746237670656 82.65850094386965 81.30667292193762 79.90731335852155 78.46594488651169 76.98825592876842 75.48007824851611 73.94736393403785 72.39616190850235 70.83259405762757 69.26283106939474 67.6930680811619 66.12950023028712 64.57829820475162 63.04558389027336 61.53740621002105 60.05971725227778 58.61834878026792 57.21898921685185 55.86716119491982 54.56819976208291 53.32723132567749 52.14915342117753 51.038615383859444 50.0 49.03740621002105 48.15463293184435 47.35516406829814 46.64215475774424 46.018418922188445 45.486418162015894 45.048252041178955 44.705649801177515 44.45996353653278 44.31216285868794 44.262831069394736 44.31216285868794 44.45996353653278 44.705649801177515 45.048252041178955 45.486418162015894 46.018418922188445 46.64215475774424 47.35516406829815 48.15463293184436 49.03740621002105 49.99999999999999 51.03861538385943 52.149153421177516 53.32723132567749 54.5681997620829 55.8671611949198 57.218989216851824 58.61834878026791 60.05971725227779 61.53740621002105 63.04558389027335 64.57829820475162 66.12950023028712 67.6930680811619 69.26283106939472
68.22421568553528 69.79397867376812 71.3575465246429 72.9087485501784 74.44146286465666 75.94964054490897 77.42732950265224 78.8686979746621 80.26805753807817 81.6198855600102 82.91884699284711 84.15981542925252 85.3378933337525 86.44843137107057 87.48704675493002 88.44964054490896 89.33241382308566 90.13188268663188 90.84489199718577 91.46862783274156 92.00062859291413 92.43879471375107 92.7813969537525 93.02708321839722 93.17488389624208 93.22421568553528 93.17488389624208 93.02708321839722 92.7813969537525 92.43879471375107 92.00062859291413 91.46862783274157 90.84489199718577 90.13188268663187 89.33241382308566 88.44964054490897 87.48704675493002 86.44843137107057 85.3378933337525 84.15981542925253 82.91884699284711 81.61988556001022 80.26805753807817 78.86869797466211 77.42732950265224 75.94964054490897 74.44146286465667 72.9087485501784 71.3575465246429 69.79397867376812 68.22421568553528 66.65445269730246 65.09088484642768 63.53968282089217 62.006968506413926 60.49879082616161 59.02110186841834 57.579733396408486 56.1803738329924 54.82854581106038 53.529584378223475 52.28861594181805 51.11053803731808 50.0 48.96138461614055 47.99879082616161 47.11601754798491 46.3165486844387 45.60353937388479 44.979803538329 44.44780277815645 44.009636657319504 43.66703441731807 43.421348152673346 43.273547474828504 43.224215685535285 43.273547474828504 43.421348152673346 43.66703441731807 44.00963665731951 44.44780277815644 44.979803538328994 45.603539373884786 46.3165486844387 47.11601754798491 47.998790826161596 48.96138461614055 49.999999999999986 51.110538037318065 52.28861594181805 53.52958437822345 54.828545811060366 56.18037383299239 57.57973339640846 59.02110186841834 60.498790826161596 62.0069685064139 63.53968282089217 65.09088484642767 66.65445269730246 68.22421568553528
67.11367764821722 68.68344063645004 70.24700848732482 71.79821051286034 73.33092482733859 74.8391025075909 76.31679146533416 77.75815993734403 79.1575195007601 80.50934752269214 81.80830895552904 83.04927739193445 84.22735529643444 85.3378933337525 86.37650871761196 87.3391025075909 88.2218757857676 89.02134464931382 89.7343539598677 90.3580897954235 90.89009055559606 91.328256676433 91.67085891643444 91.91654518107916 92.06434585892401 92.11367764821722 92.06434585892401 91.91654518107916 91.67085891643444 91.328256676433 90.89009055559606 90.35808979542351 89.7343539598677 89.0213446493138 88.2218757857676 87.33910250759091 86.37650871761196 85.3378933337525 84.22735529643444 83.04927739193447 81.80830895552904 80.50934752269214 79.1575195007601 77.75815993734403 76.31679146533418 74.83910250759091 73.33092482733859 71.79821051286034 70.24700848732483 68.68344063645006 67.11367764821722 65.54391465998438 63.980346809109605 62.4291447835741 60.89643046909585 59.38825278884353 57.91056383110026 56.469195359090406 55.06983579567434 53.7180077737423 52.419046340905396 51.17807790449997 50.000000000000014 48.88946196268193 47.850846578822484 46.88825278884353 46.00547951066683 45.20601064712062 44.49300133656672 43.86926550101093 43.33726474083838 42.89909862000144 42.55649638 42.31081011535527 42.163009437510425 42.11367764821722 42.163009437510425 42.31081011535527 42.55649638 42.89909862000144 43.33726474083838 43.86926550101093 44.49300133656672 45.206010647120635 46.005479510666845 46.88825278884353 47.85084657882248 48.889461962681914 50.0 51.17807790449997 52.41904634090538 53.718007773742286 55.06983579567431 56.46919535909039 57.910563831100276 59.38825278884353 60.89643046909583 62.4291447835741 63.980346809109605 65.54391465998438 67.1136776482172
65.93559974371723 67.50536273195007 69.06893058282485 70.62013260836036 72.15284692283862 73.66102460309092 75.13871356083419 76.58008203284405 77.97944159626013 79.33126961819215 80.63023105102906 81.87119948743447 83.04927739193445 84.15981542925252 85.19843081311197 86.16102460309091 87.04379788126761 87.84326674481383 88.55627605536773 89.18001189092351 89.71201265109607 90.15017877193301 90.49278101193445 90.73846727657917 90.88626795442403 90.93559974371723 90.88626795442403 90.73846727657917 90.49278101193445 90.15017877193301 89.71201265109607 89.18001189092354 88.55627605536773 87.84326674481383 87.04379788126761 86.16102460309094 85.19843081311197 84.15981542925252 83.04927739193445 81.8711994874345 80.63023105102906 79.33126961819217 77.97944159626013 76.58008203284406 75.13871356083419 73.66102460309094 72.15284692283862 70.62013260836036 69.06893058282486 67.50536273195007 65.93559974371723 64.36583675548441 62.80226890460963 61.25106687907412 59.718352564595875 58.21017488434356 56.73248592660029 55.291117454590434 53.89175789117436 52.53992986924233 51.240968436405424 50.0 48.821922095500035 47.71138405818195 46.672768674322505 45.71017488434356 44.82740160616686 44.02793274262065 43.31492343206675 42.69118759651096 42.15918683633841 41.72102071550146 41.37841847550003 41.132732210855295 40.98493153301045 40.93559974371724 40.98493153301045 41.132732210855295 41.37841847550003 41.72102071550147 42.1591868363384 42.69118759651095 43.31492343206674 44.027932742620656 44.827401606166866 45.71017488434355 46.6727686743225 47.711384058181935 48.82192209550002 50.0 51.2409684364054 52.539929869242314 53.891757891174336 55.29111745459041 56.7324859266003 58.21017488434355 59.718352564595854 61.25106687907412 62.802268904609626 64.36583675548441 65.93559974371723
64.69463130731182 66.26439429554466 67.82796214641944 69.37916417195494 70.9118784864332 72.42005616668551 73.89774512442878 75.33911359643864 76.7384731598547 78.09030118178674 79.38926261462365 80.63023105102906 81.80830895552904 82.91884699284711 83.95746237670656 84.9200561666855 85.8028294448622 86.60229830840842 87.31530761896231 87.9390434545181 88.47104421469066 88.9092103355276 89.25181257552904 89.49749884017376 89.64529951801862 89.69463130731182 89.64529951801862 89.49749884017376 89.25181257552904 88.9092103355276 88.47104421469066 87.93904345451811 87.31530761896231 86.60229830840841 85.8028294448622 84.92005616668551 83.95746237670656 82.91884699284711 81.80830895552904 80.63023105102907 79.38926261462365 78.09030118178676 76.7384731598547 75.33911359643865 73.89774512442878 72.42005616668551 70.91187848643321 69.37916417195494 67.82796214641944 66.26439429554466 64.69463130731182 63.124868319079 61.56130046820422 60.01009844266871 58.477384128190465 56.96920644793815 55.49151749019488 54.050149018185024 52.65078945476895 51.29896143283692 50.000000000000014 48.75903156359459 47.580953659094625 46.47041562177654 45.431800237917095 44.46920644793815 43.58643316976145 42.78696430621524 42.07395499566133 41.45021916010554 40.91821839993299 40.48005227909605 40.13745003909461 39.891763774449885 39.74396309660504 39.69463130731183 39.74396309660504 39.891763774449885 40.13745003909461 40.48005227909605 40.91821839993299 41.45021916010554 42.07395499566133 42.786964306215246 43.586433169761456 44.46920644793814 45.43180023791709 46.470415621776525 47.58095365909461 48.75903156359459 49.99999999999999 51.298961432836904 52.650789454768926 54.050149018185 55.49151749019489 56.96920644793814 58.477384128190444 60.01009844266871 61.561300468204216 63.124868319079 64.69463130731182
63.39566987447492 64.96543286270774 66.52900071358252 68.08020273911804 69.61291705359629 71.1210947338486 72.59878369159186 74.04015216360173 75.4395117270178 76.79133974894984 78.09030118178674 79.33126961819215 80.50934752269214 81.6198855600102 82.65850094386965 83.6210947338486 84.5038680120253 85.30333687557152 86.0163461861254 86.6400820216812 87.17208278185376 87.6102489026907 87.95285114269214 88.19853740733686 88.34633808518171 88.39566987447492 88.34633808518171 88.19853740733686 87.95285114269214 87.6102489026907 87.17208278185376 86.64008202168121 86.0163461861254 85.3033368755715 84.5038680120253 83.62109473384861 82.65850094386965 81.6198855600102 80.50934752269214 79.33126961819217 78.09030118178674 76.79133974894984 75.4395117270178 74.04015216360173 72.59878369159188 71.12109473384861 69.61291705359629 68.08020273911804 66.52900071358253 64.96543286270776 63.39566987447492 61.82590688624209 60.26233903536731 58.7111370098318 57.178422695353554 55.67024501510124 54.19255605735797 52.75118758534811 51.351828021932036 50.00000000000001 48.7010385671631 47.46007013075768 46.281992226257714 45.17145418893963 44.13283880508018 43.17024501510124 42.28747173692454 41.48800287337833 40.77499356282442 40.15125772726863 39.61925696709608 39.18109084625914 38.8384886062577 38.59280234161297 38.44500166376813 38.39566987447492 38.44500166376813 38.59280234161297 38.8384886062577 39.18109084625914 39.61925696709608 40.15125772726863 40.77499356282442 41.488002873378335 42.287471736924545 43.17024501510123 44.132838805080176 45.17145418893961 46.2819922262577 47.46007013075768 48.70103856716308 49.99999999999999 51.351828021932015 52.75118758534809 54.192556057357976 55.67024501510123 57.17842269535353 58.7111370098318 60.262339035367305 61.82590688624209 63.39566987447491
62.04384185254288 63.613604840775714 65.1771726916505 66.728374717186 68.26108903166426 69.76926671191657 71.24695566965983 72.6883241416697 74.08768370508577 75.4395117270178 76.7384731598547 77.97944159626012 79.1575195007601 80.26805753807817 81.30667292193762 82.26926671191656 83.15203999009326 83.95150885363948 84.66451816419337 85.28825399974916 85.82025475992172 86.25842088075866 86.6010231207601 86.84670938540482 86.99451006324968 87.04384185254288 86.99451006324968 86.84670938540482 86.6010231207601 86.25842088075866 85.82025475992172 85.28825399974917 84.66451816419337 83.95150885363947 83.15203999009326 82.26926671191657 81.30667292193762 80.26805753807817 79.1575195007601 77.97944159626013 76.7384731598547 75.43951172701782 74.08768370508577 72.68832414166971 71.24695566965984 69.76926671191657 68.26108903166426 66.728374717186 65.1771726916505 63.61360484077572 62.04384185254288 60.47407886431005 58.910511013435276 57.359308987899766 55.82659467342152 54.3184169931692 52.84072803542593 51.39935956341608 50.0 48.64817197806797 47.34921054523107 46.10824210882564 44.93016420432568 43.8196261670076 42.78101078314815 41.8184169931692 40.9356437149925 40.13617485144629 39.423165540892384 38.79942970533659 38.26742894516404 37.8292628243271 37.48666058432566 37.24097431968094 37.093173641836096 37.04384185254288 37.093173641836096 37.24097431968094 37.48666058432566 37.8292628243271 38.26742894516404 38.79942970533659 39.423165540892384 40.1361748514463 40.93564371499251 41.818416993169194 42.78101078314815 43.819626167007584 44.93016420432566 46.10824210882564 47.349210545231045 48.64817197806796 49.99999999999998 51.399359563416056 52.84072803542594 54.318416993169194 55.826594673421496 57.359308987899766 58.91051101343527 60.47407886431005 62.043841852542876
